     -0.16747954522000000       0.20110351534000001       -3.7428283679800005     
     -4.4403325980000005E-002   1.0921863495400002       -3.3755629606399999     
     -0.20281805206000000       0.33376314816000002       -4.7047046350199997     
       1.9622343582400001       -1.4030942998800002       -3.0041646731200000     
       1.2002233300200000      -0.85396628928000007       -3.2528677495600005     
      1.5809245667800000       -2.1377097830400000       -2.4952541905200003     
      3.6769033727400005       0.15024950954000002       -1.4708343756600000     
      3.0766726426800002      -0.39350734436000001       -2.0075849128400001     
      4.5288429102800007       0.10950280354000001       -1.9362305513200000     
      2.5694026118800002        2.7281771790000002       -1.2796582396000002     
      2.9475373353400003        1.8338081494200003       -1.3137690534800002     
      2.3371040534400001        2.8620168787600000      -0.34575432164000003     
     0.18297387706000001        2.7384749828800001       -2.6970350537000005     
      0.98809703694000006        2.7463756104200003       -2.1531829477600004     
     -0.53797293836000004        2.9239518718799999       -2.0726261808199999     
      3.6765435317000006       -1.0073749914800001        1.0740937537199999     
      3.6766705344200004      -0.60507800054000005       0.18967327054000002     
      4.6105797441599998       -1.2043191677400000        1.2553266351600001     
      2.5319315177000004       0.87867361010000000        2.7583614921200001     
      2.9151992677600003       0.20449025454000000        2.1730165392000003     
      1.7099857892000001       0.47959402140000001        3.0888172777800005     
      1.8696123329000001        3.1986005456600002        1.3860071422600000     
       2.1014610900399999        2.3864975279600005        1.8664108060000002     
       2.3819518889399998        3.8985866205000006        1.8237114331800002     
      0.18004223093999999      -0.20404045324000000        3.7335942118800003     
     -0.56787678714000001       0.35932773734000006        3.4741964480600003     
      0.16013984636000000      -0.20812041562000000        4.7050115582600007     
     -1.9496716725200003        1.4001573619800003        2.9949358088000002     
     -2.5398903548200003       0.89202477104000011        2.4139936168400000     
      -1.6196868552800001        2.1247290467000002        2.4380182980399998     
      -3.6643459788000001      -0.15318644744000001        1.4616002195600002     
      -3.2817079505600004       -1.0438512310200001        1.3955535133800001     
      -4.5460359035000000      -0.29166174648000004        1.8456617366200001     
      -2.5568399261599999       -2.7311194086800001        1.2704240835000000     
      -1.7170820661800001       -2.7362683106200003        1.7591252582800003     
     -2.3051840364800000       -2.8950481695200003       0.34638404346000001     
    -0.17041648312000002       -2.7414119207800001        2.6878008976000003     
     -4.7340263880000004E-002  -1.8503290865800002        3.0550663049400000     
     -0.19749452138000001       -3.3260107327200004        3.4634118004199999     
      -2.5193688319800001      -0.88161583978000002       -2.7675956482200004     
      -1.6974283952600000      -0.48253095930000006       -3.0980514338800003     
      -2.9026365820400000      -0.20742719244000002       -2.1822454035200005     
      -3.6639808459800003        1.0044380535800002       -1.0833279098200002     
      -3.6641078487000001       0.60214106264000000      -0.19890213486000000     
      -4.5980170584400009        1.2013822298400001       -1.2645607912600001     
     -1.8570549389600002       -3.2015427753400001       -1.3952360065800002     
     -2.0888984043200001       -2.3894344658600000       -1.8756396703200000     
     -2.3693892032200004       -3.9015235584000001       -1.8329455892800002     
     0.93253334694000001       -3.5261405605400000       -1.5424903686400002     
     -2.8496235300000002E-002  -3.4095467718000005       -1.4595734678200001     
      1.2715406490800001       -3.4289623126200004      -0.63713031200000003     
    -0.91997066122000015        3.5231983308600001        1.5332615043200002     
      4.1058921020000007E-002   3.4066098339000002        1.4503446035000001     
     -1.2589779633600000        3.4260253747200005       0.62789615590000003     
      1.9944612984400001       -3.2607101675200001        1.0301719797200000     
      2.5583639588000002       -2.4701288190800001        1.0625312144200001     
      1.2471720021799999       -3.0544736255800000        1.6158926490200001     
     -1.9818986127200000        3.2577732296200002       -1.0394061358200002     
     -2.5630524758800002        2.4792571395800000       -1.0545776690800002     
     -2.5487064603000000        3.9939339125400006       -1.3237493505600002     
